ply
format ascii 1.0
comment Created by Open3D
element vertex 1233
property double x
property double y
property double z
property uchar red
property uchar green
property uchar blue
end_header
-0.11145 -0.172119 -0.381348 44 30 26
-0.109985 -0.172607 -0.382324 40 26 22
-0.103394 -0.164795 -0.365234 47 25 17
-0.101685 -0.164795 -0.365234 61 26 11
-0.0997314 -0.164429 -0.364258 89 39 16
-0.0977783 -0.16394 -0.363281 97 50 26
-0.0960693 -0.16394 -0.363281 104 57 35
-0.0941162 -0.163452 -0.362305 107 55 35
-0.0922241 -0.163086 -0.361328 110 53 34
-0.0907593 -0.163452 -0.362305 109 53 29
-0.088623 -0.162598 -0.360352 112 51 27
-0.0869141 -0.162598 -0.360352 112 51 25
-0.0852661 -0.162598 -0.360352 111 48 23
-0.0836182 -0.162598 -0.360352 111 49 21
-0.0821533 -0.163086 -0.361328 117 49 21
-0.0804443 -0.163086 -0.361328 117 49 21
-0.0790405 -0.163452 -0.362305 106 45 21
-0.0775757 -0.16394 -0.363281 98 42 18
-0.0758667 -0.16394 -0.363281 108 52 24
-0.0744019 -0.164429 -0.364258 111 51 22
-0.072876 -0.164795 -0.365234 112 50 22
-0.071228 -0.164795 -0.365234 114 49 22
-0.0697021 -0.165283 -0.366211 110 50 21
-0.0681763 -0.165771 -0.367432 110 50 21
-0.0664673 -0.165771 -0.367432 104 47 17
-0.0647583 -0.165771 -0.367432 87 41 14
-0.0630493 -0.165771 -0.367432 51 31 23
-0.0614014 -0.165771 -0.367432 44 25 19
-0.0596924 -0.165771 -0.367432 46 27 23
-0.0578308 -0.165283 -0.366211 46 25 22
-0.0558167 -0.164429 -0.364258 46 23 20
-0.0539856 -0.16394 -0.363281 41 20 17
-0.0518494 -0.162598 -0.360352 40 21 17
-0.0494995 -0.160278 -0.355225 41 22 18
-0.047699 -0.159912 -0.354248 41 20 15
-0.045929 -0.159424 -0.353271 41 20 15
-0.0440369 -0.158447 -0.351318 40 19 14
-0.0422974 -0.158081 -0.350342 40 19 14
-0.0405579 -0.157593 -0.349121 41 20 15
-0.0388184 -0.157104 -0.348145 40 19 16
-0.0371094 -0.156738 -0.347168 39 23 18
-0.0354919 -0.156738 -0.347168 39 23 18
-0.0338745 -0.156738 -0.347168 41 25 20
-0.0322876 -0.156738 -0.347168 42 26 21
-0.0307617 -0.157104 -0.348145 46 27 23
-0.0291443 -0.157104 -0.348145 43 32 27
-0.0275269 -0.157104 -0.348145 40 30 30
-0.0259094 -0.157104 -0.348145 42 34 33
-0.0243073 -0.157104 -0.348145 42 36 38
-0.0226135 -0.156738 -0.347168 47 43 44
-0.0210114 -0.156738 -0.347168 47 46 48
-0.0193481 -0.15625 -0.346191 55 61 61
-0.0176849 -0.155762 -0.345215 83 91 92
-0.016037 -0.155396 -0.344238 114 121 115
-0.0143204 -0.153931 -0.341309 118 120 102
-0.0126648 -0.153076 -0.339111 120 108 90
-0.0110245 -0.152222 -0.337158 125 112 99
-0.00940704 -0.151245 -0.335205 120 109 104
-0.00785065 -0.151245 -0.335205 131 122 115
-0.00627899 -0.150757 -0.334229 151 140 115
-0.00473022 -0.150757 -0.334229 135 111 86
-0.00317001 -0.150391 -0.333252 54 34 24
-0.00162601 -0.150391 -0.333252 50 34 27
-8.14795e-05 -0.150391 -0.333252 50 34 27
0.00145817 -0.149902 -0.332275 51 35 28
0.00299835 -0.149902 -0.332275 62 46 41
0.00452423 -0.149414 -0.331055 52 42 40
0.00606155 -0.149414 -0.331055 52 43 46
0.00757217 -0.149048 -0.330078 56 52 57
0.00910187 -0.149048 -0.330078 47 46 53
0.0105972 -0.14856 -0.329102 48 44 49
0.0120926 -0.148071 -0.328125 44 34 32
0.0136108 -0.148071 -0.328125 40 29 24
0.0151367 -0.148071 -0.328125 38 27 22
0.0166473 -0.148071 -0.328125 39 28 21
0.0181122 -0.147583 -0.327148 39 28 21
0.0196381 -0.147583 -0.327148 35 21 15
0.0211487 -0.147583 -0.327148 31 24 18
0.0226746 -0.147583 -0.327148 26 22 15
0.0241852 -0.147583 -0.327148 26 22 15
0.0256958 -0.147583 -0.327148 28 24 17
0.0272217 -0.147583 -0.327148 28 24 17
0.0287323 -0.147583 -0.327148 28 24 17
0.0302582 -0.147583 -0.327148 28 24 17
0.0317688 -0.147583 -0.327148 28 24 17
0.0332947 -0.147583 -0.327148 30 23 17
0.0349121 -0.148071 -0.328125 28 21 15
0.036438 -0.148071 -0.328125 28 21 13
0.0380554 -0.14856 -0.329102 27 18 11
0.0395813 -0.14856 -0.329102 25 16 9
0.0412292 -0.149048 -0.330078 19 15 6
0.0429077 -0.149414 -0.331055 13 13 7
0.0447083 -0.150391 -0.333252 13 13 7
0.0463867 -0.150757 -0.334229 18 18 14
0.0480957 -0.151245 -0.335205 43 45 55
0.0497742 -0.151733 -0.336182 48 54 65
0.0513611 -0.151733 -0.336182 45 56 67
0.0530701 -0.152222 -0.337158 39 48 60
0.0546265 -0.152222 -0.337158 31 33 41
0.0561829 -0.152222 -0.337158 26 26 30
0.0575867 -0.151733 -0.336182 17 18 14
0.0591431 -0.151733 -0.336182 20 15 11
0.0606995 -0.151733 -0.336182 23 14 9
0.0622559 -0.151733 -0.336182 22 15 9
0.0635986 -0.151245 -0.335205 19 15 8
0.062439 -0.144897 -0.321045 13 14 10
0.0637207 -0.144409 -0.320068 13 14 8
0.0651855 -0.144409 -0.320068 17 17 11
0.0664673 -0.144043 -0.319092 16 13 8
0.067749 -0.143555 -0.318115 18 15 10
0.0685425 -0.142212 -0.315186 18 15 10
0.0704956 -0.143066 -0.317139 18 15 10
0.0854492 -0.157104 -0.348145 27 16 9
0.0870972 -0.157104 -0.348145 22 13 6
0.0886841 -0.157104 -0.348145 15 11 4
0.090332 -0.157104 -0.348145 28 24 25
0.0919189 -0.157104 -0.348145 29 34 39
0.093811 -0.157593 -0.349121 26 31 36
0.095459 -0.157593 -0.349121 18 18 12
0.0970459 -0.157593 -0.349121 20 16 9
0.0986938 -0.157593 -0.349121 21 17 10
0.100281 -0.157593 -0.349121 22 18 11
0.101929 -0.157593 -0.349121 45 41 32
0.103516 -0.157593 -0.349121 113 109 110
0.105469 -0.158081 -0.350342 140 148 149
0.107056 -0.158081 -0.350342 152 152 148
0.108704 -0.158081 -0.350342 136 115 82
0.110352 -0.158081 -0.350342 132 106 75
0.111938 -0.158081 -0.350342 131 109 85
0.113586 -0.158081 -0.350342 128 108 86
0.115173 -0.158081 -0.350342 103 74 60
0.116821 -0.158081 -0.350342 71 40 31
0.118469 -0.158081 -0.350342 49 22 14
0.120422 -0.158447 -0.351318 36 22 16
0.12207 -0.158447 -0.351318 24 19 15
0.123657 -0.158447 -0.351318 22 17 13
0.125244 -0.158447 -0.351318 29 25 18
0.127319 -0.158936 -0.352295 37 30 22
0.128906 -0.158936 -0.352295 36 29 21
0.130493 -0.158936 -0.352295 36 29 21
0.132202 -0.158936 -0.352295 38 29 22
0.133423 -0.158447 -0.351318 41 30 23
0.13501 -0.158447 -0.351318 42 31 22
0.138306 -0.158447 -0.351318 42 38 31
0.115967 -0.131348 -0.291016 96 88 76
0.11731 -0.131348 -0.291016 57 44 33
0.118652 -0.131348 -0.291016 50 41 34
0.119995 -0.131348 -0.291016 77 57 49
0.121338 -0.131348 -0.291016 93 82 73
0.122681 -0.131348 -0.291016 109 121 113
0.124084 -0.131348 -0.291016 48 39 34
0.125366 -0.131348 -0.291016 67 44 39
0.126709 -0.131348 -0.291016 68 45 40
0.128052 -0.131348 -0.291016 54 47 41
0.129395 -0.131348 -0.291016 53 50 45
0.130737 -0.131348 -0.291016 54 46 43
0.132568 -0.131836 -0.291992 58 50 47
0.133911 -0.131836 -0.291992 56 48 45
0.135254 -0.131836 -0.291992 59 54 50
0.136597 -0.131836 -0.291992 56 51 47
0.137939 -0.131836 -0.291992 61 51 51
0.139404 -0.131836 -0.291992 57 52 50
0.140747 -0.131836 -0.291992 61 56 54
0.14209 -0.131836 -0.291992 60 52 49
0.143433 -0.131836 -0.291992 62 52 50
0.144775 -0.131836 -0.291992 64 54 52
0.146118 -0.131836 -0.291992 63 56 50
0.147461 -0.131836 -0.291992 61 56 52
0.148804 -0.131836 -0.291992 59 59 55
0.150757 -0.132202 -0.292969 63 60 55
0.1521 -0.132202 -0.292969 68 60 57
0.153442 -0.132202 -0.292969 68 58 56
0.154785 -0.132202 -0.292969 70 59 54
0.156128 -0.132202 -0.292969 67 58 53
0.157471 -0.132202 -0.292969 73 62 55
0.158325 -0.131836 -0.291992 75 64 57
0.159668 -0.131836 -0.291992 77 66 59
0.161011 -0.131836 -0.291992 80 69 62
0.162354 -0.131836 -0.291992 79 65 61
0.163696 -0.131836 -0.291992 76 67 62
0.165039 -0.131836 -0.291992 76 67 62
0.166382 -0.131836 -0.291992 75 66 59
0.167236 -0.131348 -0.291016 77 66 59
0.168579 -0.131348 -0.291016 81 65 60
0.169922 -0.131348 -0.291016 79 65 61
0.170654 -0.130859 -0.290039 78 67 62
0.171997 -0.130859 -0.290039 72 64 61
0.17334 -0.130859 -0.290039 75 67 64
0.174683 -0.130859 -0.290039 72 64 61
0.175415 -0.130371 -0.289062 71 63 60
0.176758 -0.130371 -0.289062 76 66 64
0.178101 -0.130371 -0.289062 80 69 64
0.178833 -0.130005 -0.288086 75 66 59
0.179565 -0.129517 -0.287109 73 64 57
0.180298 -0.129028 -0.285889 71 60 55
0.181519 -0.129028 -0.285889 69 58 53
0.182861 -0.129028 -0.285889 69 58 53
0.184204 -0.129028 -0.285889 69 58 53
0.186157 -0.129517 -0.287109 69 58 53
0.1875 -0.129517 -0.287109 69 58 53
0.188843 -0.129517 -0.287109 69 58 53
0.190186 -0.129517 -0.287109 69 58 53
0.191528 -0.129517 -0.287109 69 58 53
0.193481 -0.130005 -0.288086 69 58 53
0.196899 -0.131348 -0.291016 69 58 53
0.198242 -0.131348 -0.291016 69 58 53
0.200317 -0.131836 -0.291992 69 58 53
0.20166 -0.131836 -0.291992 69 58 53
0.200195 -0.130005 -0.288086 69 58 53
0.200806 -0.129517 -0.287109 69 58 53
0.201416 -0.129028 -0.285889 69 58 53
0.202026 -0.128662 -0.284912 69 58 53
0.202637 -0.128174 -0.283936 69 58 53
0.201782 -0.126831 -0.281006 69 58 53
0.203125 -0.126831 -0.281006 69 58 53
0.203735 -0.126343 -0.280029 69 58 53
0.204956 -0.126343 -0.280029 69 58 53
0.206299 -0.126343 -0.280029 69 58 53
0.207642 -0.126343 -0.280029 69 58 53
0.20813 -0.125854 -0.279053 69 58 53
0.20874 -0.125488 -0.278076 69 58 53
0.209229 -0.125 -0.276855 69 58 53
0.210571 -0.125 -0.276855 69 58 53
0.21106 -0.124573 -0.275879 69 58 53
0.21228 -0.124573 -0.275879 69 58 53
0.212769 -0.124084 -0.274902 69 58 53
0.214111 -0.124084 -0.274902 69 58 53
0.215332 -0.124084 -0.274902 69 58 53
0.21582 -0.123657 -0.273926 69 58 53
0.217163 -0.123657 -0.273926 69 58 53
0.218384 -0.123657 -0.273926 69 58 53
0.219604 -0.123657 -0.273926 69 58 53
0.220093 -0.123169 -0.272949 69 58 53
0.220581 -0.122742 -0.271973 69 58 53
0.221802 -0.122742 -0.271973 69 58 53
0.223145 -0.122742 -0.271973 69 58 53
0.223511 -0.122314 -0.270996 69 58 53
0.224731 -0.122314 -0.270996 69 58 53
0.226074 -0.122314 -0.270996 69 58 53
0.227295 -0.122314 -0.270996 69 58 53
0.228516 -0.122314 -0.270996 69 58 53
0.229004 -0.121826 -0.27002 69 58 53
0.230225 -0.121826 -0.27002 69 58 53
0.231445 -0.121826 -0.27002 69 58 53
0.231812 -0.121399 -0.269043 69 58 53
0.233154 -0.121399 -0.269043 69 58 53
0.234375 -0.121399 -0.269043 69 58 53
0.234741 -0.120911 -0.267822 69 58 53
0.235962 -0.120911 -0.267822 69 58 53
0.238037 -0.121399 -0.269043 69 58 53
0.237549 -0.120483 -0.266846 69 58 53
0.242432 -0.122314 -0.270996 69 58 53
0.243652 -0.122314 -0.270996 69 58 53
0.244873 -0.122314 -0.270996 69 58 53
0.246094 -0.122314 -0.270996 69 58 53
0.24646 -0.121826 -0.27002 69 58 53
0.247681 -0.121826 -0.27002 69 58 53
0.248047 -0.121399 -0.269043 69 58 53
0.244629 -0.119141 -0.263916 69 58 53
0.244995 -0.118652 -0.262939 69 58 53
0.246216 -0.118652 -0.262939 69 58 53
0.248291 -0.119141 -0.263916 69 58 53
0.248657 -0.118652 -0.262939 69 58 53
0.249878 -0.118652 -0.262939 69 58 53
0.250977 -0.118652 -0.262939 69 58 53
0.252197 -0.118652 -0.262939 69 58 53
0.252441 -0.118225 -0.261963 69 58 53
0.253662 -0.118225 -0.261963 69 58 53
0.254883 -0.118225 -0.261963 69 58 53
0.256104 -0.118225 -0.261963 69 58 53
-0.535645 -0.327148 -0.717773 96 86 96
-0.532227 -0.327148 -0.717773 98 92 98
-0.529785 -0.327637 -0.71875 94 90 95
-0.526367 -0.327637 -0.71875 94 93 97
-0.523926 -0.328125 -0.719727 93 93 97
-0.520508 -0.328125 -0.719727 96 92 97
-0.518066 -0.328613 -0.720703 94 94 98
-0.514648 -0.328613 -0.720703 94 94 96
-0.511719 -0.328857 -0.72168 91 91 93
-0.508301 -0.328857 -0.72168 92 95 96
-0.505859 -0.329346 -0.722656 96 95 99
-0.502441 -0.329346 -0.722656 95 95 99
-0.499268 -0.329346 -0.722656 89 88 95
-0.496582 -0.329834 -0.723633 89 91 97
-0.493164 -0.329834 -0.723633 89 91 97
-0.48999 -0.329834 -0.723633 88 90 96
-0.487305 -0.330322 -0.724609 86 92 94
-0.483887 -0.330322 -0.724609 87 93 95
-0.481201 -0.330811 -0.725586 87 93 95
-0.477783 -0.330811 -0.725586 88 91 94
-0.475098 -0.331299 -0.726562 89 92 95
-0.47168 -0.331299 -0.726562 91 94 97
-0.468994 -0.331787 -0.727539 87 93 95
-0.466309 -0.332275 -0.728516 87 93 95
-0.463623 -0.33252 -0.729492 89 95 97
-0.460693 -0.333008 -0.730469 89 92 95
-0.458008 -0.333496 -0.731445 86 94 95
-0.455322 -0.333984 -0.732422 89 95 97
-0.451904 -0.333984 -0.732422 87 93 95
-0.448975 -0.334473 -0.733398 86 94 95
-0.446289 -0.334961 -0.734863 88 91 94
-0.443604 -0.335449 -0.73584 91 94 97
-0.440186 -0.335449 -0.73584 89 95 97
-0.437256 -0.335938 -0.736816 87 93 95
-0.433838 -0.335938 -0.736816 86 92 94
-0.430908 -0.336182 -0.737793 86 94 95
-0.42749 -0.336182 -0.737793 82 93 93
-0.424072 -0.336182 -0.737793 87 93 95
-0.420654 -0.336182 -0.737793 91 94 97
-0.417236 -0.336182 -0.737793 89 95 97
-0.414551 -0.33667 -0.73877 87 93 95
-0.411133 -0.33667 -0.73877 89 92 95
-0.408203 -0.337158 -0.739746 91 94 97
-0.405273 -0.337646 -0.740723 92 94 100
-0.402344 -0.338135 -0.741699 91 93 99
-0.399414 -0.338623 -0.742676 93 92 99
-0.395508 -0.338135 -0.741699 91 91 95
-0.187866 -0.17749 -0.389404 87 93 95
-0.186035 -0.17749 -0.389404 89 95 97
-0.183716 -0.177124 -0.388428 89 95 97
-0.182373 -0.17749 -0.389404 87 93 95
-0.181519 -0.178467 -0.391357 87 93 95
-0.179688 -0.178467 -0.391357 87 93 95
-0.178833 -0.179321 -0.393311 87 93 95
-0.177002 -0.179321 -0.393311 92 95 98
-0.175171 -0.179321 -0.393311 91 94 97
-0.17334 -0.179321 -0.393311 89 95 97
-0.171021 -0.178955 -0.392334 89 95 95
-0.169678 -0.179321 -0.393311 87 91 86
-0.166992 -0.178467 -0.391357 98 80 69
-0.165161 -0.178467 -0.391357 113 78 61
-0.16333 -0.178467 -0.391357 111 75 56
-0.161621 -0.178467 -0.391357 114 73 54
-0.159302 -0.177979 -0.390381 115 74 55
-0.157471 -0.177979 -0.390381 119 78 59
-0.155273 -0.17749 -0.389404 117 76 55
-0.153564 -0.17749 -0.389404 116 72 52
-0.150879 -0.176636 -0.387451 117 73 53
-0.148682 -0.176147 -0.386475 116 72 52
-0.146973 -0.176147 -0.386475 119 75 55
-0.144775 -0.175659 -0.385498 119 73 53
-0.142578 -0.175293 -0.384277 120 69 51
-0.140137 -0.174316 -0.382324 122 69 52
-0.137573 -0.173462 -0.380371 122 72 51
-0.135864 -0.173462 -0.380371 121 71 48
-0.134399 -0.173828 -0.381348 120 70 49
-0.13269 -0.173828 -0.381348 120 70 49
-0.131226 -0.174316 -0.382324 117 70 46
-0.129517 -0.174316 -0.382324 121 72 46
-0.128052 -0.174805 -0.383301 120 71 45
-0.126221 -0.174805 -0.383301 121 69 47
-0.124512 -0.174805 -0.383301 122 68 44
-0.122742 -0.174805 -0.383301 122 68 42
-0.120605 -0.174316 -0.382324 119 70 44
-0.118835 -0.174316 -0.382324 112 62 41
-0.117676 -0.175293 -0.384277 83 43 30
-0.116211 -0.175659 -0.385498 58 40 31
-0.113525 -0.174316 -0.382324 49 33 28
-0.111755 -0.174316 -0.382324 44 30 26
-0.103088 -0.166138 -0.364258 47 25 17
-0.101135 -0.165649 -0.363281 69 24 11
-0.0994263 -0.165649 -0.363281 89 39 16
-0.0974731 -0.165161 -0.362305 97 50 26
-0.09552 -0.164673 -0.361328 104 57 35
-0.0936279 -0.164307 -0.360352 107 55 35
-0.0919189 -0.164307 -0.360352 110 53 34
-0.0905151 -0.164673 -0.361328 109 53 29
-0.0881348 -0.16333 -0.358398 112 51 27
-0.0864258 -0.16333 -0.358398 111 50 24
-0.0847778 -0.16333 -0.358398 111 48 23
-0.0831299 -0.16333 -0.358398 111 49 21
-0.081665 -0.163818 -0.359375 117 49 21
-0.0800171 -0.163818 -0.359375 117 49 21
-0.0785522 -0.164307 -0.360352 106 45 21
-0.0769043 -0.164307 -0.360352 100 44 20
-0.0754395 -0.164673 -0.361328 108 52 24
-0.0737915 -0.164673 -0.361328 111 51 22
-0.0722656 -0.165161 -0.362305 112 50 22
-0.0708008 -0.165649 -0.363281 114 49 22
-0.0693359 -0.166138 -0.364258 110 50 21
-0.067627 -0.166138 -0.364258 110 50 21
-0.0661011 -0.166504 -0.365234 104 47 17
-0.0644531 -0.166504 -0.365234 74 38 19
-0.0627441 -0.166504 -0.365234 51 31 23
-0.0610657 -0.166504 -0.365234 44 25 19
-0.0593567 -0.166504 -0.365234 46 27 23
-0.0574951 -0.166138 -0.364258 45 24 21
-0.0553589 -0.164673 -0.361328 46 23 20
-0.0532227 -0.16333 -0.358398 40 19 16
-0.0513 -0.162476 -0.356201 40 21 17
-0.0489197 -0.160156 -0.351318 41 22 18
-0.0473022 -0.160156 -0.351318 41 20 15
-0.0455322 -0.159668 -0.350342 41 20 15
-0.0437927 -0.15918 -0.349121 40 19 14
-0.0419312 -0.158325 -0.347168 40 19 14
-0.0403137 -0.158325 -0.347168 41 20 15
-0.0386047 -0.157837 -0.346191 41 20 17
-0.0369873 -0.157837 -0.346191 39 23 18
-0.0354004 -0.157837 -0.346191 39 23 18
-0.033783 -0.157837 -0.346191 41 25 20
-0.0321655 -0.157837 -0.346191 45 26 22
-0.0306702 -0.158325 -0.347168 44 28 23
-0.0288849 -0.157349 -0.345215 43 32 27
-0.0273743 -0.157837 -0.346191 40 30 30
-0.0257721 -0.157837 -0.346191 42 34 33
-0.024231 -0.158325 -0.347168 43 37 39
-0.0225525 -0.157837 -0.346191 47 43 44
-0.0208893 -0.157349 -0.345215 47 46 48
-0.0192871 -0.157349 -0.345215 55 61 61
-0.0176392 -0.156982 -0.344238 83 91 92
-0.0159454 -0.156006 -0.342285 114 121 115
-0.0142365 -0.154663 -0.339111 118 120 102
-0.0125504 -0.15332 -0.336182 120 108 90
-0.0109253 -0.152344 -0.334229 116 102 94
-0.00934601 -0.151855 -0.333252 122 113 108
-0.00782776 -0.152344 -0.334229 131 122 115
-0.00625992 -0.151855 -0.333252 151 140 115
-0.00471497 -0.151855 -0.333252 135 111 86
-0.00317001 -0.151855 -0.333252 54 34 24
-0.00162125 -0.151489 -0.332275 50 34 27
-8.12411e-05 -0.151489 -0.332275 50 34 27
0.00145435 -0.151001 -0.331055 51 35 28
0.00298882 -0.151001 -0.331055 62 46 41
0.00450897 -0.150513 -0.330078 52 42 40
0.00604248 -0.150513 -0.330078 52 43 46
0.00754929 -0.150024 -0.329102 56 52 57
0.00907135 -0.150024 -0.329102 47 46 53
0.0105667 -0.149658 -0.328125 48 44 49
0.0120926 -0.149658 -0.328125 44 34 32
0.0136108 -0.149658 -0.328125 40 29 24
0.0150833 -0.14917 -0.327148 38 27 20
0.0166016 -0.14917 -0.327148 39 28 21
0.0181122 -0.14917 -0.327148 39 28 21
0.0196381 -0.14917 -0.327148 35 21 15
0.0211487 -0.14917 -0.327148 31 24 18
0.0226746 -0.14917 -0.327148 26 22 15
0.0241852 -0.14917 -0.327148 26 22 15
0.0256958 -0.14917 -0.327148 28 24 17
0.0272217 -0.14917 -0.327148 28 24 17
0.0287323 -0.14917 -0.327148 28 24 17
0.0302582 -0.14917 -0.327148 28 24 17
0.0317688 -0.14917 -0.327148 28 24 17
0.0332947 -0.14917 -0.327148 28 21 15
0.0349121 -0.149658 -0.328125 28 21 15
0.036438 -0.149658 -0.328125 28 21 13
0.0380554 -0.150024 -0.329102 27 18 11
0.0395813 -0.150024 -0.329102 25 16 9
0.0412292 -0.150513 -0.330078 19 15 6
0.0430298 -0.151489 -0.332275 13 13 7
0.0447083 -0.151855 -0.333252 13 13 7
0.0463867 -0.152344 -0.334229 18 18 14
0.0480957 -0.152832 -0.335205 43 45 55
0.0497742 -0.15332 -0.336182 48 54 65
0.0515137 -0.153687 -0.337158 45 56 67
0.0530701 -0.153687 -0.337158 40 46 59
0.0546265 -0.153687 -0.337158 31 33 41
0.0561829 -0.153687 -0.337158 26 26 30
0.0575867 -0.15332 -0.336182 17 18 14
0.0591431 -0.15332 -0.336182 20 15 11
0.0606995 -0.15332 -0.336182 23 14 9
0.0622559 -0.15332 -0.336182 22 15 9
0.0635986 -0.152832 -0.335205 19 15 8
0.0622559 -0.145996 -0.320068 13 14 10
0.0635376 -0.145508 -0.319092 13 14 8
0.0650024 -0.145508 -0.319092 17 17 11
0.0662842 -0.14502 -0.318115 18 15 10
0.0675659 -0.144531 -0.317139 18 15 10
0.0683594 -0.143188 -0.314209 18 15 10
0.0702515 -0.144165 -0.316162 18 15 10
0.0852051 -0.158325 -0.347168 27 16 9
0.086853 -0.158325 -0.347168 22 13 6
0.0886841 -0.158813 -0.348145 15 11 4
0.090332 -0.158813 -0.348145 28 24 25
0.0919189 -0.158813 -0.348145 29 34 39
0.0935669 -0.158813 -0.348145 26 31 36
0.0951538 -0.158813 -0.348145 18 18 12
0.0968018 -0.158813 -0.348145 20 16 9
0.0986938 -0.15918 -0.349121 21 17 10
0.100281 -0.15918 -0.349121 22 18 11
0.101929 -0.15918 -0.349121 45 41 32
0.103516 -0.15918 -0.349121 113 109 110
0.105164 -0.15918 -0.349121 140 148 149
0.107056 -0.159668 -0.350342 152 152 148
0.108704 -0.159668 -0.350342 136 115 82
0.110352 -0.159668 -0.350342 132 106 75
0.111938 -0.159668 -0.350342 131 109 85
0.113586 -0.159668 -0.350342 128 108 86
0.115173 -0.159668 -0.350342 103 74 60
0.116821 -0.159668 -0.350342 71 40 31
0.118469 -0.159668 -0.350342 49 22 14
0.120056 -0.159668 -0.350342 36 22 16
0.12207 -0.160156 -0.351318 24 19 15
0.123657 -0.160156 -0.351318 22 17 13
0.125244 -0.160156 -0.351318 29 25 18
0.127319 -0.160645 -0.352295 37 30 22
0.12854 -0.160156 -0.351318 36 29 21
0.114197 -0.132202 -0.290039 58 55 50
0.11554 -0.132202 -0.290039 96 88 76
0.116882 -0.132202 -0.290039 55 44 35
0.118225 -0.132202 -0.290039 50 41 34
0.119568 -0.132202 -0.290039 77 57 49
0.120911 -0.132202 -0.290039 93 82 73
0.122253 -0.132202 -0.290039 102 114 106
0.123657 -0.132202 -0.290039 48 39 34
0.125366 -0.13269 -0.291016 67 44 39
0.126709 -0.13269 -0.291016 68 45 40
0.128052 -0.13269 -0.291016 53 51 43
0.129395 -0.13269 -0.291016 53 50 45
0.130737 -0.13269 -0.291016 54 46 43
0.13208 -0.13269 -0.291016 58 50 47
0.133423 -0.13269 -0.291016 58 50 47
0.134766 -0.13269 -0.291016 59 54 50
0.13623 -0.13269 -0.291016 56 51 47
0.137573 -0.13269 -0.291016 61 51 51
0.138916 -0.13269 -0.291016 58 55 52
0.140259 -0.13269 -0.291016 61 56 54
0.141602 -0.13269 -0.291016 60 52 49
0.142944 -0.13269 -0.291016 62 52 50
0.144287 -0.13269 -0.291016 64 54 52
0.14563 -0.13269 -0.291016 63 56 50
0.146973 -0.13269 -0.291016 61 56 52
0.148315 -0.13269 -0.291016 59 59 55
0.149658 -0.13269 -0.291016 63 60 55
0.151001 -0.13269 -0.291016 70 58 56
0.152344 -0.13269 -0.291016 68 58 56
0.153687 -0.13269 -0.291016 70 59 54
0.155029 -0.13269 -0.291016 67 58 53
0.156372 -0.13269 -0.291016 73 62 55
0.157227 -0.132202 -0.290039 76 65 58
0.158569 -0.132202 -0.290039 77 66 59
0.159912 -0.132202 -0.290039 80 69 62
0.161255 -0.132202 -0.290039 79 65 61
0.162598 -0.132202 -0.290039 78 69 64
0.16394 -0.132202 -0.290039 76 67 62
0.164673 -0.131714 -0.289062 75 66 59
0.166016 -0.131714 -0.289062 77 66 59
0.16687 -0.131348 -0.288086 81 65 60
0.168213 -0.131348 -0.288086 76 62 58
0.169434 -0.131348 -0.288086 78 67 62
0.170288 -0.130859 -0.287109 72 64 61
0.171509 -0.130859 -0.287109 75 67 64
0.172852 -0.130859 -0.287109 72 64 61
0.174194 -0.130859 -0.287109 71 63 60
0.174927 -0.130371 -0.285889 78 68 66
0.17688 -0.130859 -0.287109 78 67 62
0.177612 -0.130371 -0.285889 75 66 59
0.178345 -0.129883 -0.284912 75 64 57
0.178955 -0.129517 -0.283936 71 60 55
0.180298 -0.129517 -0.283936 69 58 53
0.18103 -0.129028 -0.282959 69 58 53
0.182983 -0.129517 -0.283936 69 58 53
0.184937 -0.129883 -0.284912 69 58 53
0.186279 -0.129883 -0.284912 69 58 53
0.1875 -0.129883 -0.284912 69 58 53
0.188843 -0.129883 -0.284912 69 58 53
0.190186 -0.129883 -0.284912 69 58 53
0.194824 -0.132202 -0.290039 69 58 53
0.196167 -0.132202 -0.290039 69 58 53
0.198242 -0.13269 -0.291016 69 58 53
0.195435 -0.129883 -0.284912 69 58 53
0.196777 -0.129883 -0.284912 69 58 53
0.20166 -0.132202 -0.290039 69 58 53
0.193848 -0.126221 -0.276855 69 58 53
0.195068 -0.126221 -0.276855 69 58 53
0.196411 -0.126221 -0.276855 69 58 53
0.197632 -0.126221 -0.276855 69 58 53
0.200439 -0.127197 -0.279053 69 58 53
0.20166 -0.127197 -0.279053 69 58 53
0.201538 -0.126221 -0.276855 69 58 53
0.203491 -0.126709 -0.278076 69 58 53
0.204834 -0.126709 -0.278076 69 58 53
0.206177 -0.126709 -0.278076 69 58 53
0.206665 -0.126221 -0.276855 69 58 53
0.206421 -0.125366 -0.274902 69 58 53
0.206909 -0.124939 -0.273926 69 58 53
0.208252 -0.124939 -0.273926 69 58 53
0.20874 -0.124451 -0.272949 69 58 53
0.209961 -0.124451 -0.272949 69 58 53
0.211304 -0.124451 -0.272949 69 58 53
0.211792 -0.124023 -0.271973 69 58 53
0.213013 -0.124023 -0.271973 69 58 53
0.214233 -0.124023 -0.271973 69 58 53
0.214722 -0.123535 -0.270996 69 58 53
0.215942 -0.123535 -0.270996 69 58 53
0.216431 -0.123108 -0.27002 69 58 53
0.217651 -0.123108 -0.27002 69 58 53
0.218994 -0.123108 -0.27002 69 58 53
0.220215 -0.123108 -0.27002 69 58 53
0.220581 -0.12262 -0.269043 69 58 53
0.221924 -0.12262 -0.269043 69 58 53
0.223145 -0.12262 -0.269043 69 58 53
0.224365 -0.12262 -0.269043 69 58 53
0.225586 -0.12262 -0.269043 69 58 53
0.225952 -0.122192 -0.267822 69 58 53
0.227295 -0.122192 -0.267822 69 58 53
0.228516 -0.122192 -0.267822 69 58 53
0.228882 -0.121704 -0.266846 69 58 53
0.230103 -0.121704 -0.266846 69 58 53
0.231323 -0.121704 -0.266846 69 58 53
0.231689 -0.121277 -0.265869 69 58 53
0.23291 -0.121277 -0.265869 69 58 53
0.233276 -0.120789 -0.264893 69 58 53
0.233643 -0.120361 -0.263916 69 58 53
0.234863 -0.120361 -0.263916 69 58 53
0.234253 -0.119446 -0.261963 69 58 53
0.234619 -0.118958 -0.260986 69 58 53
0.234863 -0.11853 -0.26001 69 58 53
0.236084 -0.11853 -0.26001 69 58 53
0.23645 -0.118042 -0.258789 69 58 53
0.237549 -0.118042 -0.258789 69 58 53
0.23877 -0.118042 -0.258789 69 58 53
0.240967 -0.11853 -0.26001 69 58 53
0.242188 -0.11853 -0.26001 69 58 53
0.243286 -0.11853 -0.26001 69 58 53
0.244507 -0.11853 -0.26001 69 58 53
0.246704 -0.118958 -0.260986 69 58 53
0.247925 -0.118958 -0.260986 69 58 53
0.248169 -0.11853 -0.26001 69 58 53
0.24939 -0.11853 -0.26001 69 58 53
0.250488 -0.11853 -0.26001 69 58 53
0.251709 -0.11853 -0.26001 69 58 53
0.25293 -0.11853 -0.26001 69 58 53
0.25415 -0.11853 -0.26001 69 58 53
-0.535645 -0.330566 -0.717773 96 86 96
-0.532227 -0.330566 -0.717773 98 92 98
-0.529785 -0.330811 -0.71875 94 90 95
-0.526367 -0.330811 -0.71875 94 93 97
-0.523926 -0.331299 -0.719727 93 93 97
-0.520508 -0.331299 -0.719727 96 92 97
-0.518066 -0.331787 -0.720703 94 94 98
-0.514648 -0.331787 -0.720703 94 94 96
-0.511719 -0.332275 -0.72168 91 91 93
-0.508301 -0.332275 -0.72168 92 95 96
-0.505371 -0.332275 -0.72168 96 95 99
-0.502441 -0.332764 -0.722656 95 95 99
-0.499268 -0.332764 -0.722656 89 88 95
-0.49585 -0.332764 -0.722656 89 91 97
-0.493164 -0.333252 -0.723633 88 90 96
-0.48999 -0.333252 -0.723633 88 90 96
-0.487305 -0.33374 -0.724609 86 92 94
-0.483887 -0.33374 -0.724609 87 93 95
-0.480469 -0.33374 -0.724609 87 93 95
-0.477783 -0.334229 -0.725586 88 91 94
-0.474365 -0.334229 -0.725586 89 92 95
-0.47168 -0.334717 -0.726562 91 94 97
-0.468994 -0.335205 -0.727539 87 93 95
-0.465576 -0.335205 -0.727539 87 93 95
-0.462891 -0.335449 -0.728516 89 95 97
-0.460205 -0.335938 -0.729492 89 92 95
-0.45752 -0.336426 -0.730469 86 94 95
-0.45459 -0.336914 -0.731445 89 95 97
-0.451904 -0.337402 -0.732422 87 93 95
-0.448975 -0.337891 -0.733398 86 94 95
-0.446289 -0.338379 -0.734863 88 91 94
-0.442871 -0.338379 -0.734863 91 94 97
-0.440186 -0.338867 -0.73584 89 95 97
-0.436768 -0.338867 -0.73584 87 93 95
-0.43335 -0.338867 -0.73584 86 92 94
-0.429932 -0.338867 -0.73584 86 94 95
-0.426514 -0.338867 -0.73584 82 93 93
-0.423096 -0.338867 -0.73584 89 95 97
-0.419678 -0.338867 -0.73584 91 94 97
-0.41626 -0.338867 -0.73584 89 95 97
-0.41333 -0.339355 -0.736816 87 93 95
-0.409912 -0.339355 -0.736816 89 92 95
-0.406982 -0.3396 -0.737793 91 94 97
-0.404297 -0.340088 -0.73877 92 94 100
-0.400146 -0.3396 -0.737793 91 93 99
-0.186401 -0.177979 -0.386475 87 93 95
-0.18457 -0.177979 -0.386475 89 95 97
-0.182739 -0.177979 -0.386475 89 95 97
-0.181519 -0.178467 -0.387451 87 93 95
-0.180176 -0.178833 -0.388428 87 93 95
-0.178345 -0.178833 -0.388428 87 93 95
-0.176514 -0.178833 -0.388428 92 95 98
-0.175171 -0.179321 -0.389404 92 95 98
-0.172974 -0.178833 -0.388428 91 94 97
-0.171143 -0.178833 -0.388428 89 95 97
-0.169312 -0.178833 -0.388428 89 95 95
-0.167114 -0.178467 -0.387451 84 88 83
-0.165283 -0.178467 -0.387451 98 80 69
-0.163086 -0.177979 -0.386475 113 78 61
-0.161255 -0.177979 -0.386475 111 75 56
-0.159058 -0.17749 -0.385498 115 74 55
-0.157349 -0.17749 -0.385498 117 76 57
-0.155151 -0.177002 -0.384277 119 78 59
-0.15332 -0.177002 -0.384277 117 76 55
-0.151123 -0.176514 -0.383301 119 75 55
-0.14856 -0.175659 -0.381348 119 75 55
-0.146851 -0.175659 -0.381348 116 72 52
-0.144653 -0.175171 -0.380371 119 75 55
-0.142456 -0.174683 -0.379395 119 73 53
-0.140381 -0.174194 -0.378418 120 69 51
-0.138306 -0.173828 -0.377441 122 69 52
-0.135742 -0.172852 -0.375244 124 74 53
-0.134399 -0.17334 -0.376465 121 71 48
-0.13269 -0.17334 -0.376465 120 70 49
-0.130859 -0.17334 -0.376465 120 70 49
-0.129517 -0.173828 -0.377441 117 70 46
-0.127808 -0.173828 -0.377441 119 70 44
-0.126343 -0.174194 -0.378418 118 69 43
-0.124634 -0.174194 -0.378418 123 68 47
-0.122864 -0.174194 -0.378418 122 68 44
-0.121094 -0.174194 -0.378418 122 68 42
-0.119385 -0.174194 -0.378418 119 70 44
-0.11731 -0.173828 -0.377441 106 56 35
-0.114624 -0.172363 -0.374268 81 41 28
-0.112305 -0.171509 -0.372314 51 35 30
-0.109985 -0.170532 -0.370361 48 34 28
-0.107971 -0.170044 -0.369385 44 30 26
-0.104797 -0.167725 -0.364258 36 22 18
-0.102844 -0.167358 -0.363281 47 25 17
-0.10083 -0.16687 -0.362305 69 24 11
-0.098877 -0.166382 -0.361328 89 39 16
-0.097229 -0.166382 -0.361328 97 50 26
-0.0952759 -0.165894 -0.360352 104 57 35
-0.0933228 -0.165405 -0.359375 108 56 36
-0.0914307 -0.165039 -0.358398 110 53 34
-0.0878906 -0.164551 -0.357178 111 50 26
-0.0859375 -0.164062 -0.356201 111 50 24
-0.0842896 -0.164062 -0.356201 111 48 23
-0.0826416 -0.164062 -0.356201 111 49 21
-0.0812378 -0.164551 -0.357178 117 49 21
-0.0795898 -0.164551 -0.357178 117 49 21
-0.0779419 -0.164551 -0.357178 104 43 19
-0.0762939 -0.164551 -0.357178 100 44 20
-0.0748291 -0.165039 -0.358398 108 52 24
-0.0733643 -0.165405 -0.359375 111 51 22
-0.0717163 -0.165405 -0.359375 112 50 22
-0.0702515 -0.165894 -0.360352 112 50 22
-0.0689087 -0.16687 -0.362305 108 48 19
-0.0672607 -0.16687 -0.362305 110 50 21
-0.0657349 -0.167358 -0.363281 98 47 18
-0.0640869 -0.167358 -0.363281 74 38 19
-0.0624084 -0.167358 -0.363281 51 31 23
-0.06073 -0.167358 -0.363281 44 25 19
-0.059021 -0.167358 -0.363281 46 27 23
-0.0571899 -0.16687 -0.362305 45 24 21
-0.0544434 -0.163574 -0.355225 46 23 20
-0.0526428 -0.163208 -0.354248 40 19 16
-0.0508423 -0.16272 -0.353271 40 21 17
-0.048645 -0.160889 -0.349121 41 22 18
-0.0470276 -0.160889 -0.349121 41 20 15
-0.045166 -0.159912 -0.347168 41 20 15
-0.0434265 -0.159424 -0.346191 40 19 14
-0.041687 -0.158936 -0.345215 40 19 14
-0.0401001 -0.158936 -0.345215 40 19 14
-0.0383911 -0.158569 -0.344238 41 20 17
-0.0367737 -0.158569 -0.344238 39 23 18
-0.0351868 -0.158569 -0.344238 39 23 18
-0.0336914 -0.158936 -0.345215 41 25 20
-0.032074 -0.158936 -0.345215 45 26 22
-0.0304871 -0.158936 -0.345215 44 28 23
-0.0288086 -0.158569 -0.344238 43 32 27
-0.0273743 -0.159424 -0.346191 40 30 30
-0.0257721 -0.159424 -0.346191 42 34 33
-0.0241547 -0.159424 -0.346191 43 37 39
-0.0224915 -0.158936 -0.345215 47 43 44
-0.0208893 -0.158936 -0.345215 47 46 48
-0.0191803 -0.158081 -0.343262 55 61 61
-0.0158539 -0.156738 -0.340088 114 121 115
-0.0141907 -0.155762 -0.338135 115 117 99
-0.0125504 -0.154785 -0.336182 120 108 90
-0.0108948 -0.153442 -0.333252 116 102 94
-0.00932312 -0.152954 -0.332275 122 113 108
-0.00780487 -0.153442 -0.333252 131 122 115
-0.00624084 -0.152954 -0.332275 151 140 115
-0.00469971 -0.152954 -0.332275 135 111 86
-0.00316048 -0.152954 -0.332275 54 34 24
-0.00161648 -0.152466 -0.331055 50 34 27
-8.10027e-05 -0.152466 -0.331055 51 35 28
0.00144958 -0.1521 -0.330078 54 35 31
0.00298119 -0.1521 -0.330078 62 46 41
0.00449753 -0.151611 -0.329102 52 42 40
0.00602341 -0.151611 -0.329102 52 43 46
0.00754929 -0.151611 -0.329102 56 52 57
0.00904846 -0.151123 -0.328125 47 46 53
0.0105667 -0.151123 -0.328125 48 44 49
0.0120926 -0.151123 -0.328125 44 34 32
0.0135727 -0.150635 -0.327148 40 29 24
0.0150833 -0.150635 -0.327148 38 27 20
0.0166016 -0.150635 -0.327148 39 28 21
0.0181122 -0.150635 -0.327148 39 28 21
0.0196381 -0.150635 -0.327148 35 21 15
0.0211487 -0.150635 -0.327148 31 24 18
0.0226746 -0.150635 -0.327148 26 22 15
0.0241852 -0.150635 -0.327148 26 22 15
0.0256958 -0.150635 -0.327148 28 24 17
0.0272217 -0.150635 -0.327148 28 24 17
0.0287323 -0.150635 -0.327148 28 24 17
0.0302582 -0.150635 -0.327148 28 24 17
0.0317688 -0.150635 -0.327148 28 24 17
0.0332947 -0.150635 -0.327148 28 21 15
0.0349121 -0.151123 -0.328125 28 21 15
0.036438 -0.151123 -0.328125 28 21 13
0.0380554 -0.151611 -0.329102 27 18 11
0.0397034 -0.1521 -0.330078 25 16 9
0.0413818 -0.152466 -0.331055 19 15 6
0.0430298 -0.152954 -0.332275 13 13 7
0.0448303 -0.153931 -0.334229 13 13 7
0.0465393 -0.154419 -0.335205 18 18 14
0.0482178 -0.154785 -0.336182 43 45 55
0.0497742 -0.154785 -0.336182 48 54 65
0.0515137 -0.155273 -0.337158 45 56 67
0.0530701 -0.155273 -0.337158 40 46 59
0.0546265 -0.155273 -0.337158 31 33 41
0.0561829 -0.155273 -0.337158 26 26 30
0.0577698 -0.155273 -0.337158 17 18 14
0.0591431 -0.154785 -0.336182 20 15 11
0.0606995 -0.154785 -0.336182 23 14 9
0.0622559 -0.154785 -0.336182 22 15 9
0.0635986 -0.154419 -0.335205 19 15 8
0.0622559 -0.147461 -0.320068 13 14 10
0.0635376 -0.146973 -0.319092 13 14 8
0.0650024 -0.146973 -0.319092 17 17 11
0.0662842 -0.146484 -0.318115 18 15 10
0.0831299 -0.158936 -0.345215 20 17 12
0.0849609 -0.159424 -0.346191 27 16 9
0.086853 -0.159912 -0.347168 22 13 6
0.0884399 -0.159912 -0.347168 15 11 4
0.0900269 -0.159912 -0.347168 28 24 25
0.0916748 -0.159912 -0.347168 29 34 39
0.0935669 -0.1604 -0.348145 23 29 31
0.0951538 -0.1604 -0.348145 18 18 12
0.0968018 -0.1604 -0.348145 20 16 9
0.0983887 -0.1604 -0.348145 21 17 10
0.0999756 -0.1604 -0.348145 24 20 13
0.101624 -0.1604 -0.348145 45 41 32
0.103516 -0.160889 -0.349121 113 109 110
0.105164 -0.160889 -0.349121 140 148 149
0.10675 -0.160889 -0.349121 152 152 148
0.108398 -0.160889 -0.349121 136 115 82
0.110352 -0.161255 -0.350342 132 106 75
0.111938 -0.161255 -0.350342 131 109 85
0.113586 -0.161255 -0.350342 128 108 86
0.115173 -0.161255 -0.350342 103 74 60
0.116821 -0.161255 -0.350342 71 40 31
0.118469 -0.161255 -0.350342 49 22 14
0.120056 -0.161255 -0.350342 36 22 16
0.12207 -0.161743 -0.351318 24 19 15
0.123657 -0.161743 -0.351318 22 17 13
0.124939 -0.161255 -0.350342 30 26 19
0.111145 -0.133057 -0.289062 42 38 31
0.112488 -0.133057 -0.289062 44 40 33
0.113831 -0.133057 -0.289062 69 67 59
0.115173 -0.133057 -0.289062 96 88 76
0.116882 -0.133545 -0.290039 55 44 35
0.118225 -0.133545 -0.290039 50 41 34
0.119568 -0.133545 -0.290039 77 57 49
0.120911 -0.133545 -0.290039 93 82 73
0.122253 -0.133545 -0.290039 102 114 106
0.123657 -0.133545 -0.290039 48 39 34
0.125 -0.133545 -0.290039 67 44 39
0.126343 -0.133545 -0.290039 68 45 40
0.127686 -0.133545 -0.290039 53 51 43
0.129028 -0.133545 -0.290039 53 50 45
0.130371 -0.133545 -0.290039 54 46 43
0.131714 -0.133545 -0.290039 58 50 47
0.133057 -0.133545 -0.290039 58 50 47
0.134399 -0.133545 -0.290039 58 53 49
0.135742 -0.133545 -0.290039 56 51 47
0.137085 -0.133545 -0.290039 61 51 51
0.137939 -0.133057 -0.289062 58 55 52
0.139282 -0.133057 -0.289062 61 53 52
0.140625 -0.133057 -0.289062 60 52 49
0.141968 -0.133057 -0.289062 62 52 50
0.143311 -0.133057 -0.289062 64 54 52
0.144653 -0.133057 -0.289062 64 57 51
0.145996 -0.133057 -0.289062 61 56 52
0.147339 -0.133057 -0.289062 58 58 54
0.148682 -0.133057 -0.289062 63 60 55
0.150024 -0.133057 -0.289062 70 58 56
0.151367 -0.133057 -0.289062 67 59 56
0.15271 -0.133057 -0.289062 70 59 54
0.154053 -0.133057 -0.289062 67 58 53
0.155396 -0.133057 -0.289062 73 62 55
0.156128 -0.13269 -0.288086 76 65 58
0.157471 -0.13269 -0.288086 77 66 59
0.158813 -0.13269 -0.288086 80 66 62
0.160156 -0.13269 -0.288086 79 65 61
0.161499 -0.13269 -0.288086 78 69 64
0.162231 -0.132202 -0.287109 76 67 62
0.163574 -0.132202 -0.287109 76 67 60
0.164307 -0.131714 -0.285889 78 67 60
0.165649 -0.131714 -0.285889 81 65 60
0.166382 -0.131226 -0.284912 78 64 60
0.167725 -0.131226 -0.284912 76 67 62
0.169067 -0.131226 -0.284912 72 64 61
0.1698 -0.130737 -0.283936 75 67 64
0.171021 -0.130737 -0.283936 72 64 61
0.172363 -0.130737 -0.283936 72 64 61
0.173706 -0.130737 -0.283936 78 68 66
0.175049 -0.130737 -0.283936 77 66 59
0.175781 -0.130371 -0.282959 76 67 60
0.176392 -0.129883 -0.281982 75 64 57
0.177124 -0.129395 -0.281006 69 58 53
0.178345 -0.129395 -0.281006 69 58 53
0.179688 -0.129395 -0.281006 69 58 53
0.181641 -0.129883 -0.281982 69 58 53
0.183594 -0.130371 -0.282959 69 58 53
0.184937 -0.130371 -0.282959 69 58 53
0.186279 -0.130371 -0.282959 69 58 53
0.1875 -0.130371 -0.282959 69 58 53
0.188843 -0.130371 -0.282959 69 58 53
0.189453 -0.129883 -0.281982 69 58 53
0.193359 -0.128906 -0.280029 69 58 53
0.19043 -0.126221 -0.273926 69 58 53
0.192383 -0.126587 -0.274902 69 58 53
0.195068 -0.127563 -0.276855 69 58 53
0.196411 -0.127563 -0.276855 69 58 53
0.196899 -0.127075 -0.275879 69 58 53
0.196045 -0.125732 -0.272949 69 58 53
0.199463 -0.127075 -0.275879 69 58 53
0.199341 -0.126221 -0.273926 69 58 53
0.199097 -0.125244 -0.271973 69 58 53
0.199707 -0.124817 -0.270996 69 58 53
0.200928 -0.124817 -0.270996 69 58 53
0.202148 -0.124817 -0.270996 69 58 53
0.204224 -0.125244 -0.271973 69 58 53
0.204712 -0.124817 -0.270996 69 58 53
0.205933 -0.124817 -0.270996 69 58 53
0.207153 -0.124817 -0.270996 69 58 53
0.207642 -0.124329 -0.27002 69 58 53
0.208984 -0.124329 -0.27002 69 58 53
0.210205 -0.124329 -0.27002 69 58 53
0.210693 -0.123901 -0.269043 69 58 53
0.211914 -0.123901 -0.269043 69 58 53
0.213135 -0.123901 -0.269043 69 58 53
0.213623 -0.123413 -0.267822 69 58 53
0.214844 -0.123413 -0.267822 69 58 53
0.216064 -0.123413 -0.267822 69 58 53
0.217285 -0.123413 -0.267822 69 58 53
0.217773 -0.122986 -0.266846 69 58 53
0.218994 -0.122986 -0.266846 69 58 53
0.220215 -0.122986 -0.266846 69 58 53
0.221436 -0.122986 -0.266846 69 58 53
0.222656 -0.122986 -0.266846 69 58 53
0.223145 -0.122498 -0.265869 69 58 53
0.224365 -0.122498 -0.265869 69 58 53
0.225586 -0.122498 -0.265869 69 58 53
0.225952 -0.122009 -0.264893 69 58 53
0.227173 -0.122009 -0.264893 69 58 53
0.227539 -0.121582 -0.263916 69 58 53
0.22876 -0.121582 -0.263916 69 58 53
0.229126 -0.121094 -0.262939 69 58 53
0.230347 -0.121094 -0.262939 69 58 53
0.230591 -0.120667 -0.261963 69 58 53
0.231812 -0.120667 -0.261963 69 58 53
0.232178 -0.120178 -0.260986 69 58 53
0.232544 -0.11969 -0.26001 69 58 53
0.232788 -0.119263 -0.258789 69 58 53
0.234009 -0.119263 -0.258789 69 58 53
0.234253 -0.118774 -0.257812 69 58 53
0.235474 -0.118774 -0.257812 69 58 53
0.236694 -0.118774 -0.257812 69 58 53
0.237915 -0.118774 -0.257812 69 58 53
0.239014 -0.118774 -0.257812 69 58 53
0.240234 -0.118774 -0.257812 69 58 53
0.241455 -0.118774 -0.257812 69 58 53
0.242676 -0.118774 -0.257812 69 58 53
0.243896 -0.118774 -0.257812 69 58 53
0.244995 -0.118774 -0.257812 69 58 53
0.246216 -0.118774 -0.257812 69 58 53
0.247437 -0.118774 -0.257812 69 58 53
0.248657 -0.118774 -0.257812 69 58 53
0.249878 -0.118774 -0.257812 69 58 53
0.250977 -0.118774 -0.257812 69 58 53
0.252197 -0.118774 -0.257812 69 58 53
-0.534668 -0.333252 -0.716797 96 86 96
-0.532227 -0.33374 -0.717773 98 92 98
-0.529785 -0.334229 -0.71875 94 90 95
-0.526367 -0.334229 -0.71875 94 93 97
-0.523926 -0.334717 -0.719727 93 93 97
-0.520508 -0.334717 -0.719727 96 92 97
-0.518066 -0.335205 -0.720703 94 94 98
-0.514648 -0.335205 -0.720703 94 94 96
-0.51123 -0.335205 -0.720703 89 92 93
-0.508301 -0.335693 -0.72168 92 95 96
-0.505371 -0.335693 -0.72168 96 95 99
-0.501953 -0.335693 -0.72168 95 95 99
-0.499268 -0.336182 -0.722656 89 88 95
-0.49585 -0.336182 -0.722656 89 91 97
-0.493164 -0.33667 -0.723633 88 90 96
-0.48999 -0.33667 -0.723633 88 90 96
-0.486572 -0.33667 -0.723633 86 92 94
-0.483887 -0.337158 -0.724609 87 93 95
-0.480469 -0.337158 -0.724609 87 93 95
-0.477051 -0.337158 -0.724609 88 91 94
-0.474365 -0.337646 -0.725586 89 92 95
-0.471191 -0.337646 -0.725586 91 94 97
-0.468262 -0.337891 -0.726562 87 93 95
-0.465576 -0.338379 -0.727539 87 93 95
-0.462891 -0.338867 -0.728516 89 95 97
-0.460205 -0.339355 -0.729492 89 92 95
-0.45752 -0.339844 -0.730469 86 94 95
-0.45459 -0.340332 -0.731445 89 95 97
-0.451904 -0.34082 -0.732422 87 93 95
-0.448486 -0.34082 -0.732422 86 94 95
-0.445801 -0.341309 -0.733398 88 91 94
-0.442871 -0.341797 -0.734863 91 94 97
-0.439453 -0.341797 -0.734863 89 95 97
-0.436035 -0.341797 -0.734863 87 93 95
-0.432617 -0.341797 -0.734863 86 92 94
-0.429199 -0.341797 -0.734863 86 94 95
-0.425781 -0.341797 -0.734863 82 93 93
-0.421875 -0.341309 -0.733398 89 95 97
-0.418457 -0.341309 -0.733398 91 94 97
-0.415039 -0.341309 -0.733398 89 95 97
-0.411621 -0.341309 -0.733398 87 93 95
-0.408936 -0.341797 -0.734863 89 92 95
-0.406006 -0.342285 -0.73584 91 94 97
-0.403076 -0.342773 -0.736816 92 94 100
-0.18811 -0.179688 -0.386475 87 93 95
-0.184937 -0.178345 -0.383301 87 93 95
-0.183105 -0.178345 -0.383301 89 95 97
-0.181885 -0.178833 -0.384277 89 95 97
-0.180054 -0.178833 -0.384277 89 95 97
-0.178223 -0.178833 -0.384277 87 93 95
-0.176514 -0.178833 -0.384277 90 96 98
-0.174683 -0.178833 -0.384277 92 95 98
-0.172974 -0.178833 -0.384277 92 95 98
-0.171143 -0.178833 -0.384277 91 94 97
-0.168945 -0.178345 -0.383301 90 96 98
-0.167114 -0.178345 -0.383301 89 95 95
-0.165405 -0.178345 -0.383301 84 88 83
-0.163208 -0.177856 -0.382324 98 80 69
-0.161011 -0.177368 -0.381348 112 76 57
-0.15918 -0.177368 -0.381348 114 75 55
-0.156982 -0.17688 -0.380371 115 74 55
-0.155273 -0.17688 -0.380371 117 76 57
-0.153076 -0.176514 -0.379395 118 77 58
-0.151367 -0.176514 -0.379395 117 76 55
-0.14917 -0.176025 -0.378418 119 75 55
-0.146973 -0.175537 -0.377441 119 75 55
-0.144897 -0.175049 -0.376465 117 73 53
-0.143188 -0.175049 -0.376465 119 75 55
-0.140991 -0.174561 -0.375244 119 73 53
-0.138916 -0.174194 -0.374268 120 69 51
-0.136841 -0.173706 -0.373291 122 69 52
-0.134644 -0.173218 -0.372314 124 74 53
-0.132935 -0.173218 -0.372314 121 71 48
-0.131226 -0.173218 -0.372314 120 70 49
-0.129517 -0.173218 -0.372314 119 72 48
-0.127808 -0.173218 -0.372314 118 69 43
-0.126099 -0.173218 -0.372314 119 70 44
-0.125 -0.174194 -0.374268 118 69 43
-0.123657 -0.174561 -0.375244 123 68 47
-0.120239 -0.172241 -0.370361 121 67 43
-0.11853 -0.172241 -0.370361 123 69 43
-0.117126 -0.172729 -0.371338 119 70 44
-0.115723 -0.173218 -0.372314 106 56 35
-0.112793 -0.171387 -0.368408 68 42 31
-0.111084 -0.171387 -0.368408 51 35 30
-0.10907 -0.170898 -0.367432 48 34 28
-0.10675 -0.169922 -0.365234 44 30 26
-0.104187 -0.168579 -0.362305 36 22 18
-0.102539 -0.168579 -0.362305 52 23 11
-0.100586 -0.168091 -0.361328 69 24 11
-0.0986328 -0.167603 -0.360352 89 39 16
-0.0966797 -0.167114 -0.359375 97 50 26
-0.0947266 -0.166626 -0.358398 105 58 36
-0.0928345 -0.166138 -0.357178 108 56 36
-0.0909424 -0.165771 -0.356201 110 53 34
-0.0887451 -0.164795 -0.354248 110 52 29
-0.0873413 -0.165283 -0.355225 111 50 26
-0.0856934 -0.165283 -0.355225 111 50 24
-0.0840454 -0.165283 -0.355225 111 48 23
-0.0822144 -0.164795 -0.354248 111 49 21
-0.0805664 -0.164795 -0.354248 118 50 22
-0.0789185 -0.164795 -0.354248 117 49 21
-0.0772705 -0.164795 -0.354248 104 43 19
-0.0758057 -0.165283 -0.355225 100 44 20
-0.0742188 -0.165283 -0.355225 108 52 24
-0.0727539 -0.165771 -0.356201 111 51 22
-0.071106 -0.165771 -0.356201 111 46 19
-0.0698242 -0.166626 -0.358398 112 50 22
-0.0685425 -0.167603 -0.360352 108 48 19
-0.0670776 -0.168091 -0.361328 110 50 21
-0.0653687 -0.168091 -0.361328 98 47 18
-0.0639038 -0.168579 -0.362305 74 38 19
-0.0622253 -0.168579 -0.362305 51 31 23
-0.0605469 -0.168579 -0.362305 44 25 19
-0.0588684 -0.168579 -0.362305 46 27 23
-0.0567017 -0.167114 -0.359375 45 24 21
-0.0531921 -0.161499 -0.347168 44 21 18
-0.0518799 -0.162476 -0.349121 41 20 17
-0.0501404 -0.161987 -0.348145 39 20 16
-0.0482483 -0.161011 -0.346191 41 22 18
-0.0466309 -0.161011 -0.346191 40 19 14
-0.0448914 -0.160645 -0.345215 41 20 15
-0.0431519 -0.160156 -0.344238 40 19 14
-0.0415649 -0.160156 -0.344238 40 19 14
-0.039856 -0.159668 -0.343262 40 19 14
-0.038269 -0.159668 -0.343262 41 20 17
-0.0366821 -0.159668 -0.343262 39 23 18
-0.0350952 -0.159668 -0.343262 39 23 18
-0.0334778 -0.159668 -0.343262 41 25 20
-0.0319824 -0.160156 -0.344238 45 26 22
-0.0304108 -0.160156 -0.344238 44 28 23
-0.0285492 -0.158691 -0.341309 43 32 27
-0.0272064 -0.160156 -0.344238 40 30 30
-0.0256195 -0.160156 -0.344238 42 34 33
-0.0239563 -0.159668 -0.343262 43 37 39
-0.0225525 -0.161011 -0.346191 47 43 44
-0.0123215 -0.153564 -0.330078 125 113 95
-0.0108261 -0.154053 -0.331055 116 102 94
-0.00926208 -0.153564 -0.330078 122 113 108
-0.00775909 -0.154053 -0.331055 131 122 115
-0.00624084 -0.154541 -0.332275 151 140 115
-0.00469971 -0.154541 -0.332275 135 111 86
-0.00315094 -0.154053 -0.331055 54 34 24
-0.00161171 -0.153564 -0.330078 50 34 27
-8.07643e-05 -0.153564 -0.330078 51 35 28
0.00144577 -0.153076 -0.329102 54 35 31
0.00297165 -0.153076 -0.329102 62 46 41
0.00449753 -0.153076 -0.329102 52 42 40
0.00600433 -0.15271 -0.328125 52 43 46
0.0075264 -0.15271 -0.328125 56 52 57
0.00904846 -0.15271 -0.328125 47 46 53
0.0105667 -0.15271 -0.328125 48 44 49
0.0120544 -0.152222 -0.327148 44 34 32
0.0135727 -0.152222 -0.327148 40 29 24
0.0150833 -0.152222 -0.327148 38 27 20
0.0166016 -0.152222 -0.327148 39 28 21
0.0181122 -0.152222 -0.327148 39 28 21
0.0196381 -0.152222 -0.327148 35 21 15
0.0211487 -0.152222 -0.327148 31 24 18
0.0226746 -0.152222 -0.327148 26 22 15
0.0241852 -0.152222 -0.327148 26 22 15
0.0256958 -0.152222 -0.327148 28 24 17
0.0272217 -0.152222 -0.327148 28 24 17
0.0287323 -0.152222 -0.327148 28 24 17
0.0302582 -0.152222 -0.327148 28 24 17
0.0317688 -0.152222 -0.327148 28 24 17
0.0332947 -0.152222 -0.327148 28 21 15
0.0349121 -0.15271 -0.328125 28 21 15
0.0365295 -0.153076 -0.329102 28 21 13
0.0380554 -0.153076 -0.329102 27 18 11
0.0397034 -0.153564 -0.330078 25 16 9
0.0415039 -0.154541 -0.332275 19 15 6
0.0431519 -0.155029 -0.333252 13 13 7
0.0448303 -0.155396 -0.334229 13 13 7
0.0466614 -0.156372 -0.336182 18 18 14
0.0482178 -0.156372 -0.336182 43 45 55
0.0499268 -0.15686 -0.337158 48 54 65
0.0515137 -0.15686 -0.337158 45 56 67
0.0530701 -0.15686 -0.337158 40 46 59
0.0546265 -0.15686 -0.337158 31 33 41
0.0561829 -0.15686 -0.337158 26 26 30
0.0577698 -0.15686 -0.337158 17 18 14
0.0591431 -0.156372 -0.336182 20 15 11
0.0606995 -0.156372 -0.336182 23 14 9
0.0622559 -0.156372 -0.336182 22 15 9
0.0635986 -0.155884 -0.335205 19 15 8
0.0650024 -0.155396 -0.334229 13 14 8
0.0635376 -0.148438 -0.319092 13 14 8
0.0648193 -0.147949 -0.318115 17 17 11
0.0794678 -0.159668 -0.343262 18 15 10
0.0812988 -0.160156 -0.344238 19 16 11
0.0831299 -0.160645 -0.345215 20 17 12
0.0849609 -0.161011 -0.346191 27 16 9
0.0866089 -0.161011 -0.346191 22 13 6
0.0881958 -0.161011 -0.346191 16 12 5
0.0900269 -0.161499 -0.347168 28 24 25
0.0916748 -0.161499 -0.347168 29 34 39
0.0932617 -0.161499 -0.347168 23 29 31
0.0949097 -0.161499 -0.347168 18 18 12
0.0964966 -0.161499 -0.347168 20 16 9
0.0980835 -0.161499 -0.347168 21 17 10
0.0999756 -0.161987 -0.348145 24 20 13
0.101624 -0.161987 -0.348145 45 41 32
0.10321 -0.161987 -0.348145 113 109 110
0.105164 -0.162476 -0.349121 140 148 149
0.10675 -0.162476 -0.349121 152 152 148
0.108398 -0.162476 -0.349121 136 115 82
0.110352 -0.162964 -0.350342 132 106 75
0.111938 -0.162964 -0.350342 131 109 85
0.113586 -0.162964 -0.350342 128 108 86
0.115173 -0.162964 -0.350342 103 74 60
0.116821 -0.162964 -0.350342 71 40 31
0.118469 -0.162964 -0.350342 49 22 14
0.120056 -0.162964 -0.350342 36 22 16
0.104675 -0.133057 -0.285889 38 29 22
0.106018 -0.133057 -0.285889 41 30 23
0.107727 -0.133545 -0.287109 42 31 22
0.109009 -0.133545 -0.287109 40 33 27
0.110779 -0.133911 -0.288086 42 38 31
0.112061 -0.133911 -0.288086 44 40 33
0.113403 -0.133911 -0.288086 69 67 59
0.114746 -0.133911 -0.288086 96 88 76
0.116516 -0.134399 -0.289062 55 44 35
0.117859 -0.134399 -0.289062 50 41 34
0.119202 -0.134399 -0.289062 90 70 62
0.120117 -0.133911 -0.288086 93 82 73
0.12146 -0.133911 -0.288086 102 114 106
0.122803 -0.133911 -0.288086 48 39 34
0.124084 -0.133911 -0.288086 77 52 43
0.125366 -0.133911 -0.288086 61 47 41
0.126709 -0.133911 -0.288086 53 51 43
0.128052 -0.133911 -0.288086 53 50 45
0.129395 -0.133911 -0.288086 58 50 47
0.130737 -0.133911 -0.288086 57 49 46
0.13208 -0.133911 -0.288086 58 50 47
0.133423 -0.133911 -0.288086 58 53 49
0.134766 -0.133911 -0.288086 56 51 47
0.136108 -0.133911 -0.288086 59 51 50
0.137451 -0.133911 -0.288086 58 55 52
0.138794 -0.133911 -0.288086 61 53 52
0.139648 -0.133545 -0.287109 60 52 49
0.140991 -0.133545 -0.287109 62 52 50
0.142334 -0.133545 -0.287109 64 54 52
0.143555 -0.133545 -0.287109 64 57 51
0.144897 -0.133545 -0.287109 61 56 52
0.145752 -0.133057 -0.285889 58 58 54
0.147095 -0.133057 -0.285889 64 59 55
0.148438 -0.133057 -0.285889 70 58 56
0.14978 -0.133057 -0.285889 67 59 56
0.151611 -0.133545 -0.287109 70 59 54
0.152344 -0.133057 -0.285889 69 60 55
0.153687 -0.133057 -0.285889 73 62 55
0.155029 -0.133057 -0.285889 77 66 59
0.156372 -0.133057 -0.285889 78 67 60
0.157715 -0.133057 -0.285889 80 66 62
0.159058 -0.133057 -0.285889 77 66 61
0.1604 -0.133057 -0.285889 78 69 64
0.161133 -0.132568 -0.284912 75 66 61
0.162476 -0.132568 -0.284912 76 67 60
0.163208 -0.13208 -0.283936 82 68 62
0.16394 -0.131592 -0.282959 81 65 60
0.165161 -0.131592 -0.282959 78 64 60
0.166504 -0.131592 -0.282959 76 67 62
0.167236 -0.131226 -0.281982 72 64 61
0.168579 -0.131226 -0.281982 74 66 63
