ply
format ascii 1.0
comment Created by Open3D
element vertex 342
property double x
property double y
property double z
property uchar red
property uchar green
property uchar blue
end_header
0.0359192 0.119995 -0.388428 127 132 70
0.0375061 0.112183 -0.386475 132 138 80
0.0407715 0.0971069 -0.383301 136 145 86
0.0407715 0.0953369 -0.383301 141 150 89
0.0425415 0.0953369 -0.383301 136 141 75
0.0425415 0.0935669 -0.383301 139 146 83
0.04245 0.0915527 -0.382324 147 153 95
0.0423279 0.0895386 -0.381348 146 155 99
0.0423279 0.0877686 -0.381348 147 156 100
0.0440979 0.0877686 -0.381348 138 146 92
0.0439758 0.0857544 -0.380371 139 147 93
0.0439758 0.0839844 -0.380371 142 151 99
0.0456238 0.0838013 -0.379395 135 139 80
0.10022 0.0853271 -0.386475 132 137 100
0.0438538 0.0820312 -0.379395 144 153 99
0.0456238 0.0820312 -0.379395 137 146 87
0.0438538 0.0802612 -0.379395 151 159 107
0.0455017 0.0800781 -0.378418 139 147 95
0.10022 0.0817261 -0.386475 128 137 101
0.0437622 0.0783081 -0.378418 147 156 104
0.0455017 0.0783081 -0.378418 146 154 107
0.10022 0.0799561 -0.386475 132 137 100
0.0437622 0.0765381 -0.378418 150 161 113
0.0455017 0.0765381 -0.378418 147 155 108
0.10022 0.078186 -0.386475 134 140 100
0.0453796 0.074585 -0.377441 151 158 113
0.0999756 0.0761719 -0.385498 135 142 100
0.0453796 0.0728149 -0.377441 152 160 111
0.0471497 0.0728149 -0.377441 138 143 92
0.0999756 0.0744019 -0.385498 135 142 100
0.0453796 0.071106 -0.377441 142 151 97
0.0469971 0.0709229 -0.376465 154 162 108
0.0487671 0.0709229 -0.376465 127 131 72
0.0999756 0.0726318 -0.385498 133 143 100
0.0453796 0.0693359 -0.377441 140 149 93
0.0469971 0.0691528 -0.376465 146 155 101
0.0487671 0.0691528 -0.376465 134 139 77
0.0999756 0.0708008 -0.385498 136 143 101
0.0453796 0.0675659 -0.377441 147 156 100
0.0469971 0.0673828 -0.376465 153 161 112
0.0486145 0.0671997 -0.375244 134 138 79
0.0996704 0.0688477 -0.384277 132 137 100
0.0453796 0.0658569 -0.377441 147 155 99
0.0469971 0.0656738 -0.376465 162 170 121
0.0453796 0.0640869 -0.377441 138 147 88
0.0469971 0.0639038 -0.376465 154 163 111
0.0486145 0.0637207 -0.375244 143 151 95
0.0469971 0.0621948 -0.376465 153 161 107
0.0486145 0.0620117 -0.375244 143 152 93
0.046875 0.0602722 -0.375244 152 160 104
0.0486145 0.0602722 -0.375244 151 159 103
0.046875 0.0585327 -0.375244 152 161 105
0.0484924 0.0583801 -0.374268 149 158 104
0.0502319 0.0583801 -0.374268 139 145 87
0.046875 0.0567932 -0.375244 151 161 102
0.0484924 0.0566406 -0.374268 150 159 103
0.0502319 0.0566406 -0.374268 133 141 85
0.0994263 0.0580139 -0.383301 147 151 107
0.0484924 0.0549011 -0.374268 152 161 105
0.0501099 0.0547791 -0.373291 143 151 95
0.0994263 0.0562439 -0.383301 136 140 92
0.0484924 0.0531921 -0.374268 151 160 104
0.0501099 0.0530396 -0.373291 147 159 104
0.0994263 0.0544739 -0.383301 132 139 92
0.0484924 0.0514526 -0.374268 149 158 104
0.0501099 0.0513 -0.373291 147 156 102
0.0994263 0.0526733 -0.383301 138 145 98
0.0483704 0.0495605 -0.373291 150 160 101
0.0501099 0.0495605 -0.373291 145 154 100
0.0516968 0.0494385 -0.372314 135 139 82
0.0994263 0.0509033 -0.383301 138 145 98
0.0501099 0.0478516 -0.373291 149 158 104
0.0516968 0.047699 -0.372314 141 145 86
0.0991821 0.0490112 -0.382324 143 150 103
0.0501099 0.0461121 -0.373291 147 156 100
0.0516968 0.04599 -0.372314 143 149 91
0.0991821 0.0472412 -0.382324 147 155 110
0.0499573 0.0442505 -0.372314 149 158 104
0.0516968 0.0442505 -0.372314 145 153 97
0.0534058 0.0442505 -0.372314 133 138 76
0.0991821 0.0454407 -0.382324 158 166 121
0.0499573 0.0425415 -0.372314 153 161 114
0.0516968 0.0425415 -0.372314 143 152 98
0.0991821 0.0436707 -0.382324 151 161 118
0.0991821 0.0419006 -0.382324 151 164 122
0.0974121 0.0401306 -0.382324 139 144 107
0.0991821 0.0401306 -0.382324 152 162 121
0.0991821 0.0383606 -0.382324 147 157 116
0.0991821 0.0365906 -0.382324 148 159 113
0.0516968 0.033905 -0.372314 132 137 84
0.0532837 0.0338135 -0.371338 142 147 94
0.0549927 0.0338135 -0.371338 129 133 76
0.0974121 0.0348206 -0.382324 144 151 104
0.0991821 0.0348206 -0.382324 149 160 112
0.0516968 0.0321655 -0.372314 141 155 108
0.0532837 0.032074 -0.371338 145 159 110
0.0549927 0.032074 -0.371338 132 137 84
0.0971069 0.032959 -0.381348 146 150 104
0.098877 0.032959 -0.381348 149 163 112
0.0516968 0.0304565 -0.372314 153 169 119
0.0532837 0.0303802 -0.371338 154 168 117
0.0549927 0.0303802 -0.371338 141 146 91
0.0567017 0.0303802 -0.371338 130 134 77
0.0971069 0.031189 -0.381348 146 153 108
0.098877 0.031189 -0.381348 152 163 115
0.0516968 0.0287323 -0.372314 158 173 119
0.0532837 0.028656 -0.371338 154 169 115
0.0971069 0.0294342 -0.381348 147 154 105
0.098877 0.0294342 -0.381348 150 161 111
0.0532837 0.0269318 -0.371338 151 166 112
0.0549927 0.0269318 -0.371338 145 154 95
0.0971069 0.0276642 -0.381348 141 148 101
0.0532837 0.0252075 -0.371338 155 168 108
0.0549927 0.0252075 -0.371338 146 156 97
0.0565491 0.0251465 -0.370361 135 139 80
0.0532837 0.0234833 -0.371338 152 165 105
0.0549927 0.0234833 -0.371338 149 159 100
0.0565491 0.0234222 -0.370361 140 144 87
0.0971069 0.0241241 -0.381348 144 152 103
0.098877 0.0241241 -0.381348 154 162 117
0.0532837 0.021759 -0.371338 151 164 104
0.0549927 0.021759 -0.371338 143 156 96
0.0565491 0.0217133 -0.370361 139 143 84
0.0971069 0.0223541 -0.381348 144 152 103
0.098877 0.0223541 -0.381348 155 166 118
0.0532837 0.02005 -0.371338 151 161 102
0.0548401 0.019989 -0.370361 149 159 98
0.0565491 0.019989 -0.370361 138 144 84
0.0971069 0.0205841 -0.381348 149 157 108
0.098877 0.0205841 -0.381348 158 169 121
0.0532837 0.0183258 -0.371338 145 158 98
0.0548401 0.0182648 -0.370361 144 154 93
0.0565491 0.0182648 -0.370361 140 146 86
0.0582886 0.0182648 -0.370361 132 137 75
0.0971069 0.0188141 -0.381348 152 159 110
0.098877 0.0188141 -0.381348 162 170 123
0.0532837 0.0166016 -0.371338 152 162 101
0.0548401 0.0165558 -0.370361 145 155 94
0.0565491 0.0165558 -0.370361 138 145 80
0.0581055 0.01651 -0.369385 133 140 75
0.0971069 0.0170441 -0.381348 153 162 110
0.098877 0.0170441 -0.381348 157 168 118
0.0532837 0.0148849 -0.371338 150 160 101
0.0548401 0.0148392 -0.370361 146 156 97
0.0565491 0.0148392 -0.370361 138 145 80
0.0581055 0.014801 -0.369385 130 135 71
0.0971069 0.0152817 -0.381348 147 156 102
0.098877 0.0152817 -0.381348 155 166 116
0.0549927 0.0131607 -0.371338 145 158 98
0.0565491 0.0131226 -0.370361 140 150 89
0.0581055 0.013092 -0.369385 129 134 70
0.0971069 0.0135193 -0.381348 152 161 109
0.098877 0.0135193 -0.381348 157 168 118
0.0549927 0.0114365 -0.371338 144 154 93
0.0565491 0.0114059 -0.370361 142 152 91
0.0581055 0.0113754 -0.369385 133 138 76
0.0971069 0.0117493 -0.381348 145 153 99
0.098877 0.0117493 -0.381348 158 170 117
0.0549927 0.00971985 -0.371338 147 160 100
0.0565491 0.00968933 -0.370361 145 155 94
0.0581055 0.00966644 -0.369385 138 145 82
0.0971069 0.00997925 -0.381348 146 154 100
0.098877 0.00997925 -0.381348 156 167 119
0.0549927 0.00799561 -0.371338 147 160 98
0.0565491 0.00797272 -0.370361 144 154 93
0.0581055 0.00794983 -0.369385 139 146 83
0.0971069 0.00820923 -0.381348 149 158 106
0.098877 0.00820923 -0.381348 146 160 109
0.0548401 0.0062561 -0.370361 144 157 95
0.0565491 0.0062561 -0.370361 144 154 93
0.0581055 0.00624084 -0.369385 142 147 85
0.0971069 0.00644302 -0.381348 150 158 109
0.098877 0.00644302 -0.381348 151 162 112
0.0548401 0.00453949 -0.370361 148 161 99
0.0563965 0.00452805 -0.369385 144 154 93
0.0581055 0.00452805 -0.369385 142 149 86
0.0953979 0.00467682 -0.381348 146 154 107
0.0971069 0.00467682 -0.381348 151 159 110
0.098877 0.00467682 -0.381348 155 169 120
0.0548401 0.00282478 -0.370361 152 162 101
0.0563965 0.00281715 -0.369385 149 159 98
0.0579529 0.00280952 -0.368408 144 153 92
0.098877 0.00290871 -0.381348 153 161 116
0.0546875 0.00110435 -0.369385 151 161 100
0.0562439 0.00110149 -0.368408 152 162 101
0.0579529 0.00110149 -0.368408 147 158 94
0.0971069 0.00114059 -0.381348 146 153 108
0.098877 0.00114059 -0.381348 155 163 116
0.0562439 -0.000605583 -0.368408 151 160 99
0.0578003 -0.000604153 -0.367432 150 159 98
0.0595093 -0.000604153 -0.367432 141 146 84
0.0971069 -0.000627041 -0.381348 147 158 112
0.098877 -0.000627041 -0.381348 153 164 114
0.0562439 -0.00231361 -0.368408 153 163 102
0.0578003 -0.00230598 -0.367432 150 160 96
0.0593567 -0.00230026 -0.366211 142 149 84
0.0971069 -0.00239563 -0.381348 141 150 112
0.098877 -0.00239563 -0.381348 149 160 114
0.0560913 -0.00400925 -0.367432 145 156 92
0.0578003 -0.00400925 -0.367432 151 161 97
0.0593567 -0.0039978 -0.366211 141 146 82
0.0971069 -0.00416183 -0.381348 152 158 123
0.098877 -0.00416183 -0.381348 136 146 105
0.0560913 -0.0057106 -0.367432 144 154 88
0.0576477 -0.00569534 -0.366211 147 157 93
0.0593567 -0.00569534 -0.366211 140 147 82
0.0971069 -0.00593185 -0.381348 158 162 116
0.098877 -0.00593185 -0.381348 147 155 108
0.0560913 -0.00741577 -0.367432 143 153 87
0.0576477 -0.0073967 -0.366211 145 155 89
0.0593567 -0.0073967 -0.366211 144 154 88
0.0953979 -0.00769806 -0.381348 132 140 86
0.0971069 -0.00769806 -0.381348 145 154 98
0.098877 -0.00769806 -0.381348 146 154 105
0.0559387 -0.00909424 -0.366211 144 154 88
0.0576477 -0.00909424 -0.366211 146 156 90
0.0591736 -0.00906372 -0.365234 143 153 87
0.0953979 -0.00946808 -0.381348 129 134 83
0.0971069 -0.00946808 -0.381348 139 148 96
0.098877 -0.00946808 -0.381348 143 155 102
0.0559387 -0.010788 -0.366211 144 153 92
0.0576477 -0.010788 -0.366211 146 156 95
0.0591736 -0.0107574 -0.365234 142 152 91
0.0953979 -0.0112305 -0.381348 125 132 83
0.0971069 -0.0112305 -0.381348 133 142 90
0.098877 -0.0112305 -0.381348 145 157 104
0.0559387 -0.0124893 -0.366211 143 153 94
0.0576477 -0.0124893 -0.366211 146 156 95
0.0591736 -0.0124512 -0.365234 142 152 91
0.0608826 -0.0124512 -0.365234 133 138 74
0.0953979 -0.0130005 -0.381348 126 133 84
0.0971069 -0.0130005 -0.381348 135 144 90
0.098877 -0.0130005 -0.381348 147 159 104
0.0574951 -0.0141449 -0.365234 145 154 93
0.0591736 -0.0141449 -0.365234 140 149 88
0.0608826 -0.0141449 -0.365234 134 141 78
0.0953979 -0.0147705 -0.381348 120 124 76
0.0971069 -0.0147705 -0.381348 140 149 95
0.098877 -0.0147705 -0.381348 149 158 104
0.0574951 -0.0158386 -0.365234 145 153 97
0.0591736 -0.0158386 -0.365234 145 154 95
0.0606995 -0.0157928 -0.364258 138 147 88
0.0953979 -0.0165405 -0.381348 122 129 80
0.0971069 -0.0165405 -0.381348 138 146 92
0.098877 -0.0165405 -0.381348 144 153 99
0.0574951 -0.0175323 -0.365234 145 153 97
0.0591736 -0.0175323 -0.365234 144 152 96
0.0606995 -0.0174866 -0.364258 141 150 91
0.0956421 -0.0183563 -0.382324 129 134 83
0.0974121 -0.0183563 -0.382324 129 137 81
0.098877 -0.0183105 -0.381348 146 154 98
0.0574951 -0.0192261 -0.365234 146 155 96
0.059021 -0.0191803 -0.364258 145 153 97
0.0956421 -0.0201263 -0.382324 122 127 76
0.0974121 -0.0201263 -0.382324 134 142 86
0.0991821 -0.0201263 -0.382324 144 152 100
0.0574951 -0.0209198 -0.365234 143 153 94
0.059021 -0.0208588 -0.364258 147 156 102
0.0958862 -0.0219574 -0.383301 121 125 77
0.0974121 -0.0218964 -0.382324 141 146 93
0.0991821 -0.0218964 -0.382324 146 153 104
0.0958862 -0.0237274 -0.383301 119 124 73
0.0974121 -0.0236664 -0.382324 132 137 86
0.0991821 -0.0236664 -0.382324 148 155 110
0.0958862 -0.0255127 -0.383301 113 117 69
0.0976562 -0.0255127 -0.383301 132 140 88
0.0991821 -0.0254364 -0.382324 154 160 120
0.0958862 -0.0272827 -0.383301 114 119 68
0.0976562 -0.0272827 -0.383301 126 133 84
0.0574951 -0.0276947 -0.365234 145 154 93
0.059021 -0.0276184 -0.364258 150 155 100
0.0976562 -0.029068 -0.383301 136 143 94
0.0991821 -0.0289917 -0.382324 155 159 115
0.0574951 -0.0293884 -0.365234 150 159 98
0.0591736 -0.0293884 -0.365234 153 161 109
0.0606995 -0.0293121 -0.364258 146 154 100
0.0976562 -0.030838 -0.383301 124 132 80
0.0991821 -0.0307617 -0.382324 145 153 101
0.0591736 -0.0310822 -0.365234 154 162 106
0.0624084 -0.0310059 -0.364258 151 155 96
0.0976562 -0.0326233 -0.383301 126 134 80
0.0991821 -0.0325317 -0.382324 137 145 91
0.0591736 -0.0327759 -0.365234 158 166 112
0.0608826 -0.0327759 -0.365234 159 167 111
0.0624084 -0.0326843 -0.364258 150 154 95
0.0976562 -0.0343933 -0.383301 128 133 78
0.0991821 -0.0343018 -0.382324 133 142 83
0.0591736 -0.0344543 -0.365234 161 169 117
0.0608826 -0.0344543 -0.365234 162 167 112
0.0624084 -0.0343628 -0.364258 154 158 99
0.0976562 -0.0361633 -0.383301 127 132 77
0.0991821 -0.0360718 -0.382324 132 141 80
0.0591736 -0.0361633 -0.365234 164 168 120
0.0606995 -0.0360718 -0.364258 163 168 115
0.0624084 -0.0360718 -0.364258 156 160 101
0.0976562 -0.0379333 -0.383301 125 130 75
0.0991821 -0.0378418 -0.382324 138 144 86
0.0591736 -0.0378418 -0.365234 165 172 123
0.0606995 -0.0377502 -0.364258 167 175 123
0.0624084 -0.0377502 -0.364258 160 166 108
0.0974121 -0.0396118 -0.382324 126 131 76
0.0991821 -0.0396118 -0.382324 136 141 86
0.059021 -0.0394287 -0.364258 165 172 123
0.0606995 -0.0394287 -0.364258 169 173 127
0.0974121 -0.0413818 -0.382324 126 131 78
0.0991821 -0.0413818 -0.382324 135 141 83
0.059021 -0.0411377 -0.364258 167 174 125
0.0606995 -0.0411377 -0.364258 165 172 125
0.0622253 -0.0410156 -0.363281 163 168 115
0.0974121 -0.0431519 -0.382324 121 125 77
0.098877 -0.0430603 -0.381348 132 140 84
0.059021 -0.0428162 -0.364258 162 169 120
0.0606995 -0.0428162 -0.364258 167 171 123
0.0622253 -0.0426941 -0.363281 164 169 118
0.098877 -0.0448303 -0.381348 131 136 81
0.0605469 -0.0443726 -0.363281 166 173 126
0.0622253 -0.0443726 -0.363281 167 172 121
0.0986328 -0.0464783 -0.380371 126 132 72
0.0605469 -0.0460815 -0.363281 166 173 128
0.0622253 -0.0460815 -0.363281 168 172 124
0.0986328 -0.0482178 -0.380371 120 126 66
0.0605469 -0.04776 -0.363281 167 171 125
0.0622253 -0.04776 -0.363281 160 164 116
0.0968628 -0.0499878 -0.380371 112 116 57
0.0986328 -0.0499878 -0.380371 120 124 65
0.0605469 -0.0494385 -0.363281 160 167 120
0.0620422 -0.0492859 -0.362305 169 176 127
0.0605469 -0.0511169 -0.363281 161 165 119
0.0620422 -0.0509644 -0.362305 156 160 114
0.0968628 -0.0535278 -0.380371 108 113 51
0.0986328 -0.0535278 -0.380371 115 120 56
0.0603638 -0.0526733 -0.362305 157 161 115
0.0983887 -0.0551453 -0.379395 115 120 56
0.0603638 -0.0543518 -0.362305 155 159 111
0.0620422 -0.0543518 -0.362305 154 159 108
0.0983887 -0.0568848 -0.379395 115 120 56
0.0603638 -0.0560303 -0.362305 153 158 107
0.0620422 -0.0560303 -0.362305 149 154 103
0.0603638 -0.0577087 -0.362305 149 153 105
0.0620422 -0.0577087 -0.362305 148 153 102
0.0603638 -0.0593872 -0.362305 147 151 105
0.100159 -0.0973511 -0.379395 155 162 154
